# 3D point list with one line of data per point:
#   POINT3D_ID, X, Y, Z, R, G, B, ERROR, TRACK[] as (IMAGE_ID, POINT2D_IDX)
# Number of points: 365, mean track length: 4.3526628818599624
1808 -0.31337339945592085 1.3237396677587914 2.7084113779702612 17 15 14 0.63093723448177697 1 2484 14 2354 17 3195 11 2291 20 2489 12 2516
2701 -7.2031210628087994 7.1806338427190735 9.7759610492003706 89 76 57 1.4314663341200582 1 838 14 911 10 1140 17 1121 11 908
1810 -0.31601872616246413 1.3360799720227841 2.7150817162032119 20 18 23 0.80387778579921387 1 3085 14 2364 17 4670 11 2926 20 2505 16 1887 12 2522
1815 0.070710094477404742 1.3233661162078421 2.9049611339408901 156 150 150 0.56988977137184127 6 2661 14 2376 16 2791 8 3209 7 2121
2699 -10.208644867802615 6.1591710860132256 10.502840117934445 87 81 66 0.3159681888687742 14 897 10 1087
1816 0.0013762135839494216 1.3359629953589904 2.839996711781017 157 155 154 0.58355461716375634 6 2771 14 2380 12 5354
1824 -0.33939370387545242 1.3861622467043129 2.7389141842345843 182 172 170 0.14817730892902611 1 2543 14 2408 10 3866
2653 0.12775738181778099 1.5880825041852333 2.0600059273131182 174 171 175 0.023301526077302785 1 1198 14 4214
2508 -0.38969443989514169 1.3672564279133634 2.7353069941326189 25 26 28 1.9598845422204387 1 3116 14 2392 16 2599
1826 -0.21527438902929391 1.385700659408108 2.7536717299927478 31 30 31 0.91777227678077133 1 3144 14 2413 17 4683 5 3475 20 2579 16 2593 12 4347
1831 -0.2652108975060678 1.4239052125175722 2.7637268335875524 105 46 41 0.90881299787319314 1 3177 14 2434 17 3253 11 2386 5 3538 20 2628 21 4730 16 1929 12 3779
2651 -0.5069572656469753 1.6153526389629338 2.8705379409152405 25 25 23 1.7823322599985196 1 4438 14 4210 5 5455 20 5509 21 7096 16 2691
1832 -0.032478829115635752 1.42337630354417 2.8639545644720799 148 147 145 1.6747095368184644 1 3180 14 2438 17 4611 5 4867 16 1926 12 4464 8 3229 7 1083
1834 -0.11518421832755309 1.4532875265799721 2.8279747251720169 167 166 161 0.96326429578705997 1 3208 6 4267 14 2442 17 4715 5 4997 12 5433
1840 -0.068224310999751778 1.4757430839500838 2.8711025327183988 123 120 119 0.70022392792003674 1 2588 6 2940 14 2459 5 4991 16 1945 12 4488
6819 -0.70207070647018677 0.69088031920820248 2.6733076268136777 171 162 155 0.16110433663474766 2 4457 21 4394 13 4195
7634 -0.57687799659102135 0.92158094521043199 2.6133936965220324 74 73 71 0.47925481000259779 20 4972 18 3356 12 5049
2733 0.068803864911654231 -0.64685068555870107 2.4310318241949869 204 200 188 0.82414490398275897 6 3262 14 2785 16 3238
2524 -0.63149649145793851 1.6888208514637539 2.9580031970009646 168 163 159 0.8183253431353984 1 2950 14 2534 17 1764
1842 -0.064996666053874219 1.5139961498940397 2.8995873618589645 158 154 153 0.49157168618840097 1 3212 14 2473 16 2856 15 3381
3537 -0.3536174145741432 -0.58073942932464895 2.3970353962403435 167 159 140 1.2499138437606103 10 1940 17 2639 11 1488
2214 0.058590746809202628 1.4387068064380855 2.9792923033836374 107 103 100 1.0462242957434926 1 4307 14 4124 15 3388
1847 -0.0053144721895427537 1.5368023132380053 2.9639610365779085 151 147 146 0.93167785940893888 1 3090 6 2477 14 2499 16 1976 12 5558
1848 -0.015542834039580292 1.5409374828494478 2.9549976847192823 155 151 150 1.0306908940342079 6 2998 14 2501 16 1978 15 3417 8 1827 7 1306 12 2698
6837 -0.71319045395634029 0.72226431042048445 2.7006333551138417 175 168 156 0.25135818413549371 2 4505 21 4471 18 4531 13 3045 19 4480
2302 -0.31491608299118551 1.5814230719953504 2.8398806186307177 162 158 155 1.083065615101753 1 332 14 271 10 657 17 442 5 326 20 230 18 981 16 263 12 190
1855 -0.49873158123116917 1.6575449160568823 2.8861570758498543 142 99 101 0.29718005034994421 14 2528 10 2903
6318 -0.74075552102740561 0.73375709057717364 2.7557094142785115 170 163 157 1.1421708280588214 2 953 21 985 18 952 3 1364 13 624 9 1518
7641 -0.75076434199504605 0.83807456572871963 2.7914379977086812 188 157 155 0.42368594947806093 2 4664 18 3387 3 4171 13 3041
1856 0.036610612729856017 1.6224721269781677 3.0769341339514487 14 15 10 0.99714153120415039 1 2653 14 2530 10 2926 20 5514 12 5653
2813 -5.8732033263186842 7.7751098188413845 8.7079030344599015 116 108 95 0.31517080247133222 1 389 10 357
1858 -0.041156564513537462 1.6471122212965974 3.0024654958943553 156 152 151 1.2287486472997093 6 3028 14 2535 10 2708 17 4816 15 3445 7 2170
2294 -8.4426462454380644 6.6889011487999612 10.43806016614991 94 81 62 2.089979184498588 1 216 14 189 10 485 11 200
1863 -0.0063147206563517909 1.7991372230385207 3.1368524284338601 149 149 149 1.2933167306141851 1 3306 14 2557 16 2038 6 3086 15 2523 8 1888 7 1153
1866 -0.054252450278525877 1.8141529473981777 3.0945044397590351 155 151 150 1.3222299564962268 1 3318 14 2561 7 1357 6 3083
2198 -0.27974668927576896 1.404236740053165 2.7523089637848881 225 163 166 0.7790163155492339 1 4280 14 4081 5 5050 20 4201 12 4374
2797 -6.9343120870946038 7.0863111523567861 10.164046479359836 141 131 119 1.2014318051712594 1 203 10 298 17 194 11 196 5 271
2278 0.0028015132916823851 1.1518793172403392 2.7207552477146284 37 32 28 1.3222691791395291 6 2314 14 4318 16 2354 15 1169 8 1680
1914 -0.36162181470989496 1.5220993387700232 2.8081324495488391 170 169 164 1.0209768354960433 1 2608 14 2881 17 1728 5 1893 20 1311 12 2644
6901 -0.64529049103399494 1.6109838786069706 2.9379039600952686 142 88 88 0.3738852959538207 20 5550 21 4872
1919 -0.28060976190416048 1.6899451536051595 2.9048163234781335 121 70 69 0.092880767951233567 1 3270 14 2935
1923 -0.05254087606494915 0.019068758608157942 2.3127113446254706 192 168 80 1.7096664902056962 1 3844 6 3613 14 2960 10 3500 2 2216 21 5600 18 2364
6672 -0.28360744164045493 1.1380177018654569 2.6151682702699794 25 26 21 0.89868267321639184 2 2412 14 1928 21 3606 6 2600 18 2615 16 1832
1925 -0.11849523929236358 0.17692793709156387 2.3045643344361455 95 28 19 1.173039348772315 1 1512 14 2968 10 1799
1926 0.039856733915754582 0.19309818672464377 2.1939318329041768 88 22 19 1.5399162971369957 1 1511 17 2238
6682 -0.78242404943110588 0.91445727239121033 2.86810865527104 171 163 152 0.8879523234924912 2 2899 21 3643 18 3041 9 4413 3 4235
2151 -0.30739964947912307 1.3383257004820355 2.7154908681274055 18 18 19 0.8734001471389089 1 4146 14 3987 20 4081 16 3484 12 5237
2664 -10.456560046382231 6.2605504463830268 9.8868956787314541 91 85 71 0.65045686652583845 14 137 10 153
1947 -0.17724149058886335 0.8688008535598013 2.4841175423689532 195 174 170 1.6302924161316366 1 2127 14 3051 17 2968 5 2407 2 4353 21 5829 16 2566 12 2369
2658 -0.36265639189779475 0.91544089218378155 2.5128618620320853 29 25 22 0.86409682098791762 1 4020 14 4317 10 3231 17 3018 11 2245 5 2437 2 2682 21 4436 18 4415 4 1630 12 2391
1950 0.12679177952038781 0.86883438104071598 2.6583922304607204 151 147 144 0.92095927824004775 1 2123 6 2079 14 3059 16 1612 15 3391 8 1674 7 1594 12 6589
2055 0.026246474209589612 0.8357062306919123 2.5464869002862769 173 169 166 0.17209411113976206 6 3725 14 3708 16 2990
2648 -0.65646184197226409 1.5990670650610448 2.9349511896141709 169 160 157 1.8913506328594409 1 3142 14 4194 10 1684 17 1592 11 1292 4 560 3 2986
2345 0.21935433925006731 1.1802785425180953 3.0764353453308337 20 16 15 1.80305145264292 1 1050 14 553 10 1735 16 415
1995 -1.0317542187993878 -1.1976230688984868 2.9019053073246179 217 214 211 2.0770029103819474 14 3290 10 2233 1 2835
2642 -0.55710134171011794 1.5678456930163716 2.8718040730800602 170 163 159 2.0063240746443243 1 2617 14 4180 17 1049 5 1208 20 809 2 1568 5 1922 21 1873 12 1420
1997 -0.054421722995739871 1.6658140190160415 3.0001618749156482 44 44 42 0.72366848020854713 1 3253 6 4390 14 3298 8 3308
1998 -1.1344264986914907 -1.1608597227639377 2.9197399808164461 171 170 166 1.7249396287526366 14 3303 10 2235 1 2842
7468 -0.83565217319135443 0.81718570212219599 3.1301856821470588 57 42 36 1.1268949954143326 2 4671 21 4629 18 2281
2003 -1.2370722573915374 -1.2212462179133106 3.1235591541603536 168 167 162 0.2427083161318434 6 3965 14 3318
2215 -0.1280496498743523 1.4631400726950898 2.8302481230881522 167 163 164 0.60162253395786314 1 4359 14 4126 20 5360 12 5439
2722 -4.2748186812572673 1.7426191192557794 6.6937248105362022 173 175 172 1.4685539261317631 1 80 14 2083
2079 -0.28781650974456108 0.97011616980089832 2.5300729361487462 27 22 19 0.83424397935488126 1 4064 14 3782 17 3049 11 2271 5 3227 20 2219 2 4462 21 6022 16 3107 12 3918
6030 -0.48820541973149589 1.3373376549190643 2.7430739564104893 209 201 198 0.47664885743606233 5 3523 2 3886 18 3911 12 4354
2014 0.035598061483899851 -0.24043426965848907 2.0777056225829691 93 86 69 0.89296487959555426 1 1884 14 3432
2167 -0.26288900429528039 1.3558956901595018 2.7282895299209624 21 22 20 1.0739426085914119 1 4412 14 4029 5 4945 20 4098 16 2518 12 5256
2022 -0.0091589089857919154 -0.15915957789744895 2.2719577834087561 163 154 88 0.78094246883735996 1 3712 14 3532 5 2715
2680 -9.8681949297051439 6.3801483907491656 10.378590410256752 76 61 39 0.78851662946556433 14 402 10 467
2674 -8.342305468254624 7.1448617244976145 9.0776650981666283 86 74 58 1.5170037577163729 1 260 14 293 10 303
2029 -0.10844915793404936 -0.063755497507396314 2.3029391722597841 183 168 101 1.7409055027446008 1 3804 14 3580 10 3430 5 2813 20 3463 2 2537 21 7377
2095 -0.31869631909145174 0.99129671629008398 2.5436577083291656 40 36 32 1.4759889572434222 1 4085 14 3810 17 3076 10 3364 11 2283 5 3265 20 2265 2 4518 21 6074 18 4444 16 3135 12 3971
2030 0.04195256506567601 1.7005744738829407 3.1331143117350124 136 135 131 0.90183476787744221 6 4415 14 3587 16 2708 7 2207
2035 -0.09596076049878996 0.0087116370751864555 2.3135681403340818 143 109 31 1.0736647526071119 1 2015 14 3597 11 3121 5 2853 20 3478 2 2556 10 3252
2049 -0.050495226064658748 0.80882905668489213 2.4878639891682481 170 161 164 1.1771406930858166 1 3955 14 3673 17 3508 5 4576 20 3639 12 4802
2053 0.064559047198634159 0.82799920843101327 2.5662805732204279 157 153 152 0.81205168941897055 1 3966 14 3699 16 2983 8 2198
3505 -0.43470485107649032 0.95652962082511528 2.5530958187919879 174 161 153 1.2945365701974922 1 4042 10 3232 17 2335 11 2267 5 1771 20 1726 2 2379 21 2151 18 2576 12 2428
2054 0.058540456254169801 0.83035816939307738 2.5659159327832572 161 157 157 0.28131689049353259 1 5043 14 3702 16 2986
2057 -0.0058440607807974682 0.83845998558341639 2.5266572300825945 164 162 159 0.97778267193645196 6 3716 14 3712 20 5759 16 2993 12 4813
4026 -0.73276713071418165 -0.19176707757440126 3.1588288532660176 108 99 93 2.5992396598322998 17 1380 11 1139
2059 0.039784949103849256 0.84057941934965208 2.5579167641346161 162 157 154 0.25537153808261814 1 3980 14 3716 16 2997
2060 0.1212907075580299 0.83460810361935767 2.6279286801216517 155 152 147 0.84443170831107517 1 3970 14 3717 8 2879
3513 -0.39420455637240892 -1.9048634386259906 1.7206297310114897 225 226 221 1.953646903719406 10 2190 17 2406
2062 0.058029466191081895 0.84958125392149009 2.5743377613271812 161 156 152 1.141827380121412 1 3984 6 3759 14 3724 20 4816 16 2261
2065 0.017479054231046912 0.86318876103102327 2.5570585113369089 168 163 160 0.42004869336390266 1 3997 14 3731 16 3024
3970 -0.43697095895125587 1.5022735035187214 2.8069518823368651 176 174 175 0.94101037374824814 17 1041 11 877 18 2148 4 784
2067 0.16735862569669926 0.88127364644803152 2.7242351584656359 107 102 98 0.68950536695792852 1 3171 14 3742 16 2317
2070 0.043849238018949098 0.91566870028570946 2.5960247721394238 161 156 153 0.88668109599670908 1 5139 14 3751 8 2298
3978 -6.7171646115575117 7.1907262139321748 9.9837035400965686 124 118 102 0.54266036339077983 17 1108 11 904 5 1192
2075 0.10998421377508998 0.92565203031424559 2.6774717845560727 151 147 143 0.70074292991365716 1 5147 14 3763 16 3070
2076 0.052741165954605214 0.93979837590712212 2.6319585169618107 159 154 151 0.89143231559813141 1 4038 6 4436 14 3769 20 2197 16 2199
2900 -1.1507563976292281 -0.50385372010564877 3.2385859081262454 189 188 194 0.3636234285720697 14 785 10 971
2085 -0.16042204308871041 0.98185863009182162 2.5481030181080104 35 34 29 0.73766223728463864 1 4083 14 3797 17 4320 5 3176 20 3795 16 2228 12 4898
3776 -0.60333376766034785 -1.3932054663217237 2.7994695976714432 152 148 139 1.9250597404814596 17 1482 11 1892 1 1203 10 1233 20 3345
2086 -0.13516524577986108 0.98181432414428615 2.5548426457422444 23 18 15 0.58458458714163197 1 4084 14 3798 17 5031 5 3858 12 4904
3791 -0.048677156908015086 1.3346106696408317 2.7990780534840094 71 68 61 1.2860323314760607 1 1419 17 3147 14 1316 5 3386 16 866 12 2558 15 3257 20 738
2093 0.14487394997625133 0.96801305686223293 2.7568390337675774 151 146 142 1.1754229003265717 1 4057 14 3808 16 2233 6 2904 7 1642
3417 -0.44078881251080854 1.7822683640377694 2.9437638219520847 137 102 100 2.3184567195996002 10 2982 17 1796 11 2510 21 1224 4 2257
2094 -0.22383794785461231 0.99251902554177018 2.5434040045865913 179 178 176 0.68769274372428768 1 4097 14 3809 10 3445 17 4395 11 3427 5 3228 20 3814 16 3113 12 3950
2102 -0.17979685396530176 1.0070817572167639 2.5579114257800648 30 26 25 0.96508474377754994 1 4108 14 3822 10 3496 17 4390 11 3420 5 3917 20 3837 16 3120 12 3977
3807 -0.44284108380739512 -0.59458369867406902 2.4628970616528285 50 49 44 0.79299649705323794 17 105 11 59
2109 0.0080012452137497719 1.1319749690486014 2.7182173337634934 160 155 152 0.63690420769724376 1 2964 14 3850 20 5087 16 3340
3497 -0.44080918288672333 0.82088708370737684 2.4947137991797099 118 45 33 1.4878245597938833 17 2299 11 2226 5 1296 20 1243 2 1132 21 2232 18 1964 4 952 12 1084
2110 -0.28593898748304392 1.1457677460119524 2.6191156958122197 166 168 164 0.34617772874920638 1 3097 14 3851 17 4493 5 4695 20 3972 16 3377 12 4181
2111 -0.20682942589411407 1.1447038146815858 2.6265524498527326 23 15 17 0.30798777467145644 1 5344 14 3852 5 4024 20 3963 16 3361
2113 -0.31366683829066982 1.1480032844350667 2.6209128433166762 21 15 18 0.76627689825597722 1 5339 14 3856 5 3344 2 4680 21 6662 16 3380
3569 0.033129016988577703 0.91485250425065356 2.5999081319353681 91 87 76 0.5525728091739126 6 2097 17 2933 5 4673 12 3939 15 2499
2118 -0.35481852893635185 1.7616226741852679 2.9265316742249112 165 160 160 1.3857539777964207 1 4529 14 3862 5 5324 20 4472 16 2713 12 4611
3064 -0.53091093721644378 0.91117238893072194 2.5797254662845099 74 71 72 1.2184180900509254 1 5101 10 3162 17 3030 11 1813 5 2460 20 2256 2 2393 21 2477 18 2025 12 2439 3 5464
2121 -0.35879435137268062 1.7917788885106471 2.9412337180531201 191 160 158 1.730000657840896 1 4551 14 3868 20 3053 16 2787 5 5356 12 2794
2122 -0.33372313686852967 1.7935012336170548 2.944871007853366 182 159 162 1.1922015852108347 1 4557 14 3869 5 5346 20 3054 12 2795
4090 -0.3741237434303929 0.78707547224930341 2.4582646242002233 195 185 183 1.8752903380158186 10 1393 17 976 11 1351 5 772 2 671 18 1243 4 733 12 858 3 5404
2123 -0.28423924405564044 1.7964924870021974 2.9554580510451425 185 158 161 1.4351676956221973 1 4564 14 3872 5 5325 20 3046 16 2719 12 2798
3583 -0.56418924586624086 1.0346387593210016 2.6517188815045625 177 170 160 0.99899315737181271 1 4102 17 3111 5 3315 20 2390 2 2887 21 3620 18 2077 12 4212 3 4129 9 3634
2124 -0.040724368876455565 1.7774666820570473 3.0853312036470824 154 153 151 1.4991948122683887 1 3348 6 3067 14 3873 16 2717 12 5740 8 3091 7 2228 7 2231
2126 -0.2303220638068269 1.7967250547972864 2.9724827751424265 190 163 164 1.2962953314068919 1 4570 14 3876 20 5587 12 5692
2127 -0.10637198528765504 1.7875585849994371 3.0349126269735729 53 52 50 1.6247521391008874 1 3310 14 3877 10 3028 12 5712 20 5810
3012 0.63328857278063111 -0.020283735767058612 2.2611697998420044 42 39 34 0.5820298698368771 1 3795 10 2451
2133 -0.21917069930409958 1.1246484849060454 2.6143011234033664 173 169 166 1.0610114730495941 1 2962 14 3938 17 2358 11 2297 16 2341 12 4141
3016 -0.35321272577521878 0.94116093308054738 2.5246523384381261 37 31 31 1.4713198262903278 1 2757 10 2520 17 3034 14 3761 11 2253 5 2448 2 2693 21 4498 18 4429 4 1633 12 2398
2137 -0.30688134844313986 1.3167470403819921 2.7054024293188417 159 159 161 0.71001962926505602 1 4115 14 3950 20 4040 12 5210
2144 -0.29245675159369372 1.3257923987244171 2.710020744043026 26 21 25 0.48152735485742304 1 3072 14 3963 17 4641 5 3455
2145 -0.27707681269346401 1.327769191996016 2.7125148107417405 159 155 154 0.61354144625710239 1 4134 14 3965 5 4908 12 5225
3986 -0.4353342636747618 1.1411911086438993 2.6313578674549207 15 13 7 0.20777533023315425 10 724 11 953
2147 -0.10408113949357328 1.3207598904262332 2.7592688362539399 166 164 165 0.69398606921983497 1 4131 14 3967 20 5179 12 5250
2964 -0.11125902527488866 0.20741672588799157 2.2912990755991434 154 59 53 1.5579386726846483 6 1978 14 2975 10 1795
2149 -0.25969460559729324 1.3422628618312251 2.7257334844602177 23 22 27 1.3101647233875953 17 4646 5 3457 16 2364 1 5133
2150 -0.015251331437862396 1.3199306178330261 2.8127886702982319 161 157 156 0.51165372460864633 6 4209 14 3977 16 2416
2153 0.10075403932604493 1.3126275812964094 2.9377460617193392 149 145 142 0.98678291269545892 1 3043 14 3992 16 2533 8 3213 7 2257 6 4222
3994 -0.41846688900916051 -2.4278229882624642 2.2891410661374221 167 167 159 0.37796770199067242 17 1859 11 975
2156 -0.011632149471897264 1.3280656756378326 2.8239288664974791 156 156 154 0.90407480148681918 1 4138 14 4003 20 5212 16 2463 12 5320 8 3194
2160 -0.33725791762288748 1.3480298696313815 2.7212726598533901 28 25 32 0.67326003930821177 1 5312 14 4011 20 4100 12 5255
5603 -0.68617316258339245 1.2974228750682455 2.8481391779353831 61 52 45 0.87341132896830231 5 5042 20 5328 18 4049 17 4663 4 3423
2161 -0.32125164976030252 1.349336402207953 2.7207970326321842 12 11 9 0.51096908470305535 1 4915 14 4012 12 5253
4066 -0.84878802395839192 -2.2379191367855222 2.3851460375075551 236 241 244 0.79191626173165186 17 1221 11 1245
2163 -0.035923296943661261 1.3402212855201212 2.8113637436480547 167 163 162 0.26827044342440831 1 5047 14 4021 16 3467
2169 0.054241318720070195 1.339184650190713 2.8940238938221223 156 153 149 0.39875864642917058 1 4144 14 4037 16 2346
2173 -0.20136547377671946 1.3587685838072614 2.7430623772201423 30 27 34 0.70809738516962473 1 4958 14 4041 5 4904 20 4099 12 5269
2174 -0.10575087844140585 1.355794301837431 2.7765434954479513 57 56 52 0.43726670814115104 1 4584 14 4042 16 2367 5 3419
2833 -8.7263848065040754 6.6842169185073352 10.065467598657325 126 115 97 2.0749987656260682 1 357 10 486 17 310
2176 -0.20686408730626571 1.3654400997535752 2.745364994215127 167 167 165 0.75555748875036843 1 5175 14 4046 20 4113 12 5273
2177 -0.3610330984507002 1.372759797882994 2.7339130324019152 24 18 21 1.4821353592919584 1 4874 14 4047 20 4156 21 3728 16 1912 12 3498
3859 -0.53229492076008489 -2.0622741764659618 2.4545241132049482 192 194 193 0.83228090105906816 17 799 18 344
2178 -0.33356867169869836 1.3757716517003167 2.7342784738711363 27 27 25 1.1031379470207052 1 3124 14 4048 20 2582 10 3725 21 6857 16 3530 12 2548
2179 -0.20435052279156349 1.3720688326563399 2.7496100303548698 31 31 33 0.6955881290694983 1 5346 14 4050 20 3821 12 5281
2181 -0.27126438685328991 1.3766896792770269 2.7386844150460554 177 173 172 0.65070503818177661 1 5353 14 4053 5 4994 20 4141 16 2767 12 4330
3348 -2.3571452514088778 0.44467142835983231 4.1954681873239048 211 210 208 1.6219886938864767 10 1018 17 1349
2841 -7.8882509345060949 6.7680710167828755 10.011655180011173 137 125 112 2.1431622237990107 1 573 10 509 17 582 11 719
2184 -0.20858907223053602 1.3790413202872773 2.7523613934615678 167 168 162 0.70511498119756277 1 3134 14 4058 5 4946 20 4139 12 3503
2185 -0.042197262471633357 1.3709453879777675 2.8268314759676065 164 163 159 0.19999753113082319 1 5327 14 4059 16 3497
3867 0.077205927151078102 -0.43136026787465903 2.2536648074125338 32 32 24 0.52212227266055844 10 445 17 1172 11 382
2186 0.014755100706773567 1.3691545206998785 2.8679684430562729 155 151 148 0.95358586560568792 1 2533 6 2411 14 4063 16 3501 15 2198 8 3008
2190 -0.060335999753925978 1.3812962419972248 2.8196291522141226 164 160 161 0.10675402143782853 1 4162 14 4071 16 3510
3939 -7.1445863808214254 6.7897872978316629 11.109598540965894 118 114 106 2.1488040581607497 17 612 11 701 5 908
2194 -0.3494387297392561 1.4056586209500619 2.745960364589191 198 166 167 0.5678099709543607 1 4179 14 4076 10 2776 5 5116
2195 -0.24412883384727319 1.401117580398425 2.7553225223456304 98 47 49 1.1785530230408978 1 3159 14 4078 17 4729 5 5020 20 4186 12 4366
2917 -9.4993256850695875 7.0592098938144447 8.8701767845231974 68 60 41 1.4690257249720213 14 905 10 1127
2196 -0.21989070022007184 1.4000963772806334 2.7606890579690484 95 47 50 0.92410061517569098 1 4277 14 4079 17 5072 5 4996 20 2607 12 5316
2199 -0.28528604328276086 1.4116353593862596 2.7543761230189676 121 44 48 1.0192637346904254 1 3164 14 4084 17 4754 11 2385 5 3532 20 2621 16 2615 21 6876
2921 -7.2663058108252763 7.2569646532127212 9.5135190875867757 135 123 107 1.0814295820954811 1 737 10 1162 17 831 11 754
2200 -0.30084023127739834 1.4143174367610032 2.7543932289727633 125 46 49 1.0673504716130264 1 3165 14 4085 10 2796 17 4763 11 2981 5 3546 20 3823 16 2621 21 6893 12 4392
2201 -0.17847102238476878 1.4075870269481658 2.7774884334798031 209 152 158 0.73723077579702379 1 3167 14 4086 20 5279 12 5339
2204 -0.25848183610379227 1.4261150878692881 2.7659279401533481 103 46 52 0.9512147780923691 1 4303 14 4094 20 5315 16 3568 12 5361
2206 -0.18001659847548948 1.1325852199227571 2.6252515211685106 27 23 24 0.35653674895587423 1 5329 14 4099 17 4456 5 3982 20 3945 16 3350 12 5111
3382 -0.49615483408240224 -2.058920739212124 2.4598083253802376 219 220 215 1.4298676969156106 17 1536 11 991 4 391
2209 -0.06551390156525462 1.4286822382243438 2.8457542178777802 160 159 157 0.92128240342313694 6 4256 14 4110 20 5334 16 2619 1 4326 12 5431 15 327
4050 -0.95305598339830788 -1.8266787124837767 2.5757703871458233 229 233 234 0.32614923133211537 11 1215 4 1153
2211 -0.10837819260119527 1.4423215040320116 2.828176710925677 162 157 154 0.60894795123202139 1 4343 14 4118 20 5346 16 3575 12 5427
3543 -0.53470093273948993 -0.096051156449910274 1.7011320743543417 114 95 88 1.3023856528687623 10 1440 17 2679
2869 -6.8838377895092595 7.1838551843554326 9.8504880046791303 109 95 76 0.90029834011446663 14 463 10 679 17 508 11 740 5 521
2212 -0.0007659398849149422 1.1238604922314821 2.7055805023077877 167 163 162 0.59523146309266461 1 5313 14 4120 8 3312
2213 -0.0077676982642204337 1.4366141231205793 2.8945486623089334 156 152 149 0.31332259118088218 1 4332 14 4121 16 3576
3032 -0.48380977377365825 1.7374301173793567 2.9212092553328151 94 98 101 1.5660894602933517 1 1174 10 2707 5 1747 11 1794 2 1178 21 909
2218 -0.060005331838364151 1.4667290686158416 2.8635928115898146 164 160 159 1.8215088435926226 1 3217 14 4134 16 2636 8 2493
2222 -0.088750385852588751 1.5136798518317534 2.8802814336990079 159 158 156 0.22494152997523745 1 4393 14 4159 16 2648
5951 -0.4366921104602372 1.3741440043646833 2.7451626908168887 134 55 58 0.86062610943781226 5 3551 2 2975 21 4748 18 3899 12 2580
3334 -6.6027769952616104 7.1386039251416191 10.362445938359752 141 131 116 0.22616634985518436 10 1336 17 1283 5 1322
2225 0.065124838669650048 1.5109937120452017 3.0279648956480227 145 142 137 0.39599729536772832 6 4324 14 4168 16 2656 8 3036
3843 -5.5150553874757868 7.4094817028037374 9.8577104506450919 148 144 132 1.4088896062054974 17 316 11 287 5 371
2226 -0.093351751152145987 1.5282025004199118 2.8870702474946572 161 156 156 0.66715095161432758 6 4305 14 4169 12 6485
2825 -6.5665461281469328 8.1546416917171562 7.6184987009487024 111 101 89 1.4363025957076216 1 528 10 393 11 463
2232 0.03205965616052632 1.5251350255289053 2.9952882131118046 151 147 144 0.54920980537902919 1 4390 6 4330 14 4178 16 2659 8 3032 7 2129
3923 -0.76634242690163379 1.7036977910407214 3.0561987685998182 170 161 162 2.0206369553236527 17 268 11 663 5 286 4 220
2242 -0.12662793004055262 1.5754636509516922 2.8965404995571888 160 156 155 0.7974385643053814 1 4437 14 4202 20 4334 16 2670
3630 0.04898322477769905 0.94153092339148048 2.6304751385057794 151 146 136 1.2446439452923173 6 2131 17 3598 5 4887 16 1657 12 4006 15 2655 8 2312
2905 -12.394723538819026 4.206954274048706 14.140505045905464 103 103 103 1.0867182205867345 14 2158 10 1017
2248 -0.26415899415226396 1.6161331671033798 2.8635017166842549 17 18 15 1.6632374688245561 1 4455 14 4221 17 4847 11 2428 20 4363 21 7015 2 4836 4 3365 16 2679 12 4538
2249 -0.2553511974726187 1.6266123337743443 2.8726985974898667 23 23 21 0.83855123485718752 1 4459 14 4226 17 4849 5 5225 20 4367 16 2684 12 4546
2977 -1.4073591261988638 -1.5183266363232193 3.347449223099916 203 204 208 0.51589889077345363 6 5107 10 2001
2256 -1.0910531990989125 -1.2210637551448451 2.9279706259285758 235 232 227 0.126030954809775 6 3953 14 4250
2260 -0.079799362609788538 -0.17657099313384794 2.2753599961282172 11 1 0 1.0122028425957923 6 4676 14 4267 16 3862
2261 -0.10104712132345996 -0.089959708690727405 2.2967465105077625 173 163 99 1.6291242403570989 1 1984 14 4270 5 2267 20 4605 21 5533 17 2413
5466 -0.35014869057681874 1.3039508291533131 2.6995075103230843 6 4 1 0.88704796208037395 1 5393 20 4031 12 5207
3637 -0.0101440070466819 1.0269017941314085 2.6431069115480161 158 154 145 0.44214342756630748 1 2322 17 3744 5 3163
3492 -0.52377351339781286 0.74749346206904677 2.5088009130451092 134 43 37 1.1121465492950506 1 2071 10 3138 17 2275 11 1627 5 1336 18 2481
2263 0.11393425727522528 0.14195084623788165 2.4280001931329425 112 47 43 0.8013582197214757 1 2939 14 4275 11 3135
3646 0.15641350153889833 -2.094375793525264 2.3264135354517483 180 177 165 1.4513689641466483 10 2177 17 3822
2264 -0.0088511858798935965 0.82470556147394591 2.5156334491977108 22 14 11 0.93422090550800507 1 5036 6 3684 14 4285 20 4771 16 2973
3502 -0.48308772267518996 0.90641693933390366 2.5492565143131358 178 169 163 1.4670375534931865 10 2501 17 2316 11 1658 5 1061 5 1361 20 1751 1 4009 2 954 21 2173 18 1175 4 976 12 1167 3 3334
2265 -0.30269363467045945 1.3106168214387834 2.7017255770922692 10 7 9 0.77363783527247865 1 5408 14 4288 20 4029 16 3450 12 5205
2270 0.14561753389053803 1.1092251246167582 2.8236675597468892 29 22 14 1.4593723967896937 1 2934 6 2878 14 4303 15 3229
2929 -1.1592466993888881 -1.1319501850866882 2.9487685112229696 213 214 219 1.592613871025875 10 1237 11 1189 17 900 4 1108
2272 -0.26685328490826088 1.361869517698965 2.7316120739978769 163 163 160 0.86031933085168699 1 4755 14 4305 5 4959 20 4112 12 5267
2273 -0.024400069735425727 1.6583748394644005 3.0252855946485706 45 44 42 0.82466384380315072 1 3249 6 4393 14 4307 16 3725 12 5634 15 3454 7 2177
3955 -5.1965139899909012 7.776315875204828 9.3560007042254369 123 111 89 1.6733399237828079 10 630 17 483 11 760
2274 -0.24537672504880262 1.5080667859801948 2.812730868346875 172 167 166 0.57773402276940489 1 4384 14 4310 12 5460
2275 0.084616454668553776 1.308410547658349 2.9097054540746896 149 145 142 0.010146049296962813 1 5395 14 4315
5488 -0.47196955715764205 1.3496191241735385 2.744102089606737 20 15 12 0.83003169994755721 5 5074 20 4163 21 4742 12 5310
2279 -0.10717330630451101 1.6119412771862829 3.0483348918949944 149 147 148 0.12824384842717484 6 4 14 6
2937 -0.40066349428192571 0.97523874215717554 2.5499046867431732 202 190 193 1.4655168280438127 10 1368 17 1269 11 1379 5 1066 20 573 2 955 1 1017 4 974 12 879
2281 -6.8870914765823636 7.123768621127037 10.036059929894387 115 109 93 1.2838795249141692 1 30 14 23 10 34
3963 -0.57954570051381216 0.89737963228652373 2.6080548633348006 73 70 65 1.1203939814155202 10 1395 17 419 11 842 5 304 20 144
2282 -7.5700936217427266 7.1088337399793176 9.7163273429606782 89 76 57 1.9882076211728723 1 47 10 33 17 33 14 35 11 40
2284 -7.1765163256640836 7.0096992589128995 10.505352587361592 80 74 58 1.6017660614524301 14 64 10 54 17 46 11 46
2286 -6.4314168533729212 7.3150217651514584 9.7610152737131735 96 83 66 1.6575694545101425 1 94 14 68 10 85 17 76 11 72
6015 0.31573415504148655 -0.49928979694185821 1.843596543009101 65 62 55 0.26020224244455686 5 3007 2 3730
2287 -7.937099249872797 6.956730922496476 9.826468674150064 112 104 85 0.39430973604168013 1 111 14 98 10 90
2881 -8.5294700603553135 6.5752815358118664 10.247319396668802 106 92 73 2.0838944421194201 10 756 17 596 1 659 11 707
2288 -0.29600092570775366 0.92695811809626094 2.5286870508656367 175 171 170 1.7035147250960603 1 74 6 114 14 116 5 60
3398 -0.83701630328438958 1.5431363107438643 3.7984948030396257 173 171 159 2.0498607730963019 6 2332 17 1660
2289 -7.1065018507564641 7.1072947771743893 9.932896090161341 118 112 98 0.92641568868015189 1 174 14 133 10 136 17 136 11 140
3907 -0.43346212943379481 0.88970216466609997 2.5371024779689 186 182 179 1.3721021556932931 10 759 11 576 4 367
2290 -15.148595757791133 3.1307049067365758 14.258015428097385 112 112 114 0.81433958076727864 1 188 16 121
2885 -10.246359946905205 4.7350812375269316 13.663886915928508 61 58 43 0.49231811280057469 1 614 10 808
2292 -6.4730204412725296 7.4365942980617739 9.3518218238691571 83 66 48 1.0496663680938423 1 171 14 178 17 133 11 143
2293 -0.52085811468701071 1.5620003963094631 2.8547098318785125 164 160 157 1.6396228112257987 1 232 17 211 11 261 5 137 14 185 12 129
5498 -0.49729069966232864 1.3784643979381899 2.7656715196685369 169 137 134 0.89492462846298548 5 5133 20 4217 2 4786 21 4770 12 5377
2889 -5.5001142208620015 7.724939682906605 9.0724676385310872 99 80 50 1.3238672027870761 1 857 10 855 17 859 11 772
2296 -0.62507910004166856 1.7703324882621536 2.9952210381648601 165 162 161 1.8025560105821949 1 197 14 198 10 367
2297 -7.3844272415825296 7.1884789447386082 9.5141233755409953 108 100 79 0.79536718167644849 1 559 14 231 10 362 17 332 11 499
3915 -8.8788676495176393 4.0451641101459286 17.064538602462228 106 103 98 2.1189956955018903 11 614 5 649
2298 -0.9112230106340159 -1.3038240267509673 2.8718311742406351 175 171 168 0.33479527901074219 6 373 14 234
2299 -9.0097768463607615 -3.5135364859990998 5.7717328092497331 162 161 156 1.5176289706721877 6 346 14 244
2300 -0.26264847748672604 0.98660614473798236 2.5431323314121754 161 157 154 1.5759153900447309 1 247 14 261 6 510 10 741 17 424 11 568 5 305 4 743 8 506
3404 -0.14716608799970463 1.5368425102040693 2.8589202045041513 162 157 153 0.81008228150605932 14 965 17 1719
2303 -0.59839068076001234 1.7033090207109716 2.9517364424119674 167 162 159 1.6953411387360993 1 338 17 269 10 1307 11 542 5 288 18 260
2305 -9.3933636336485673 6.315433072373712 10.723688540944135 79 71 58 1.3613821676109454 1 221 14 282 10 466
2307 -8.45530114297663 6.6081431284588454 10.530855144676286 119 112 97 1.5619806408978392 1 353 14 285 10 244 17 201 11 331
3255 -0.28763583554186134 1.6928690686246182 2.9050275031523651 147 122 115 2.3922952288935813 10 1183 17 666 11 887 20 4169 4 856
2308 -7.8735630733735338 6.8446960926019242 10.208398302077867 115 109 95 1.1734875439118033 1 212 14 287 10 249 17 196 11 198
2309 -1.6735263729233916 4.6655127453921583 5.9291467117304189 106 108 94 1.4091148610682998 1 384 14 297
3249 -7.1883496914270655 6.9017456906567558 10.584979733573704 126 120 108 0.46790814905657241 10 496 17 604 5 549
2310 -6.5411782799467124 7.3287750202023574 9.6425875364338705 85 72 55 1.3067611923842137 1 376 14 299 10 366 17 326 11 294
2311 -12.460272120630252 4.1915790514330382 14.014174324063255 63 61 48 1.0297150860276441 14 304 10 354
2313 -0.35756409896244767 1.5424146443873321 2.8182124247847096 31 30 28 1.7312795405718 1 602 14 354 10 1165 17 1042 11 1290 5 685 20 348 2 1152 4 1763 16 284 12 400
3770 -0.87009768879260996 -1.1562288420098261 2.6010683842464197 216 217 219 0.32298057931820612 10 946 17 899
2315 0.14298340470020793 1.249296340338671 2.9367527624930427 131 126 122 1.4903641046866434 1 626 14 374 10 1340 5 3979 16 249
3263 -2.4497797873025426 0.70957747591202935 4.3784432754163571 99 100 92 1.9978061969256817 14 3780 17 738
2316 -0.64060655909061426 1.4748607410482379 2.8766149083854597 63 60 52 1.4535702786233833 1 237 14 376 17 156 5 81 20 81 21 101 12 80
2317 -7.0547923002419122 7.1508440922942675 9.8362981804740617 94 83 63 1.0177454707460503 1 562 14 388 10 685 17 506 11 507
3257 -0.29536132629336903 1.5492776613968393 2.823913481481239 19 19 17 1.1797277676076598 10 1306 17 681 11 1343 2 628 18 976
2318 -8.0081075900590228 6.8008688112087317 10.231328822864313 88 75 56 1.5071762864581288 1 360 14 396 10 491 17 304 11 278
2319 -8.2798976474924189 6.6111943354155311 10.554144401675801 82 75 59 1.4825575069775578 1 354 14 398 10 482 17 293 11 266
2688 -10.004208775856217 6.2427754003155203 10.914682308199598 77 71 57 0.72796172040271445 14 495 10 776
2321 -0.37378610428373832 1.6497036686207307 2.8727186635244619 25 24 22 1.66221176319465 1 595 10 1300 17 1054 11 1297 5 669 20 242 2 984 2 1571 18 1157 4 874 14 410 12 366
3714 -0.27691001451715469 1.1276509741287211 2.6092074466835062 29 23 15 1.4819075523346639 1 5314 17 4471 11 3501 5 3324 10 3623 2 2809 21 3604 18 4540 4 2047 16 1822 12 4152
2323 -13.314340973559943 3.9905513824718355 14.228106859094467 62 60 47 1.9784988572962481 14 417 10 443
3207 -0.04588470112749507 1.1331048873236405 2.6811246518415004 124 115 109 0.7622174310922345 14 148 17 244 5 204
2324 -0.46838378832005589 1.6051830081046645 2.8600493135407423 163 159 158 2.0564319554068602 1 598 11 694 17 446 5 331 20 240 2 525 21 409 18 559 4 448 16 566 12 311
2692 -0.23755296286876781 1.6250475648722484 2.8779840715489184 35 37 36 1.8512452879538484 6 1003 14 527 20 445 2 1686 18 2696 12 364 8 1565 15 2226 7 613
2325 -0.56089891425470573 0.97557316631904989 2.6124861627381284 67 66 61 0.8251614759988265 1 316 14 441 10 758
2326 0.10542079216884302 1.2606333271650831 2.9094346348789024 134 131 127 1.6697209654183964 6 619 14 442 8 279 7 213 15 866
2696 -10.387429682032947 6.3866137325515968 9.7698044899261429 39 29 17 1.4127688812312149 14 606 10 765
2329 -7.9243739984447243 6.9909911289106326 9.7072792916772155 89 76 57 1.608069753325251 1 568 14 450 10 501 17 468 11 503
2330 -7.1310231299925011 7.255815721425642 9.5240025024647963 108 100 81 0.78413414661274339 1 670 14 461 10 668 17 828 11 752
2331 -7.2078699718545529 7.1659983944282208 9.6858486421201029 109 100 85 0.51935033187252266 1 561 14 465 10 681
3215 -6.1909245074345565 7.5232814531765815 9.9705174755942867 150 143 125 1.6993921674757904 10 369 17 321 11 190
2332 -6.706149706011356 7.1068071989320476 10.131883638487929 99 88 67 1.2120458992033754 1 567 14 468 10 697
2700 -9.4083329188631737 6.8929410109214251 9.2740069557841878 53 45 24 1.3527664113751476 14 904 10 1116
2333 -7.836627918975589 6.8049214393820625 10.375005565938149 108 98 88 0.8077051160248544 1 656 14 484 10 738 17 597 11 708
3209 -0.21974875769352759 1.3260513827352474 2.7120121172078111 153 150 145 1.4663086180450551 10 359 17 252 5 190 11 557
2334 -13.001067977092667 4.9238854841301452 12.505017844076399 77 73 61 0.20566512286669114 14 502 10 809
2336 -13.185727736964347 3.885039596938574 13.965091311851086 70 68 54 2.6058386402582832 1 631 14 511 16 366
2640 -0.46460298892912966 1.5523573709769918 2.8341320000949963 26 23 19 1.5624094011350365 1 3203 14 4173 17 3437 11 3024 5 1915 20 2740 2 3115 21 3863 4 3433 16 3674 12 2669
2337 -17.486651258684972 1.9963360244867989 15.653065624857161 87 88 78 1.0533384579482552 1 761 16 526
6083 -0.62404288527115215 0.83364792784428632 2.6192659176858011 28 19 10 1.0871212166738675 20 4905 2 4575 21 4561 18 3301
2338 -0.23945072099009257 1.4147894962155598 2.7619089245809145 200 142 144 1.3495790954844851 1 688 14 536 6 615 17 1027 20 531 16 596 12 464
2644 -0.490587988711286 1.5712525325253279 2.8475313104727138 172 171 169 1.4210933259827834 1 3221 14 4182 5 5249 20 4358 21 4833 16 3685 12 4532
2341 -0.26511014360164853 1.3090679806835073 2.700251509980601 156 156 158 1.8530478560204175 1 699 14 544 17 1015 5 716 20 332 16 410 12 345
4032 -1.0250221555136383 -0.65087017066483499 3.1615026764553016 213 217 220 1.0761232980258653 17 1429 11 1173 4 695
3153 -0.60258745917823497 0.99282253759935502 2.6413242064613462 144 140 141 1.8316565458215657 1 140 10 112
2342 -0.32388346642030619 1.2972915863878063 2.6929952839859896 136 132 127 2.1042801282279577 1 701 14 545 20 331 12 344 10 2610
5077 0.02047693793108071 1.3461909081407271 2.5777935728277899 189 186 181 0.96920811840958498 11 1739 5 4848
2347 -8.924214356696373 6.4542478929825107 10.599380161764303 107 98 83 1.8923261216629412 1 660 14 559 10 764 17 607
5070 -0.44076343583354832 1.1005830219388155 2.622095745663108 11 3 0 1.3146827645961461 11 3497 5 4702 2 2870 21 6668 18 3919 4 2113
3167 -0.61432518579053486 -1.1731028129053027 2.9772305487530466 222 221 216 2.4882808648252732 6 1677 10 947
2348 -0.37741030168792944 0.99627382238769036 2.5585074330045727 174 169 168 1.4592581533862969 1 517 14 562 10 1365 17 717 6 2827 11 850
4047 -1.909930304954254 -1.7448767486238586 3.009059109358907 214 220 221 3.1625005892468421 10 936 11 1207
2652 -0.45213199166975543 1.6187000108725709 2.8616348340839384 42 33 36 1.1622019795708087 1 4443 14 4212 20 4377 21 7086 16 4121
2349 -9.0272295372345646 6.416246840751981 10.682438391317108 78 71 60 1.4018717819681765 1 349 14 567 10 766 17 526
4040 -0.70137209157036107 -1.1073563502501917 2.9391687636433828 181 182 184 0.014518386980360813 17 1468 4 987
3161 -7.2157083551671155 6.8762425193777865 10.820792471002852 119 113 105 1.9267729065453019 1 577 10 492 17 292 11 334 5 362
2350 -0.16950944382594008 0.8571594298976738 2.4803881012125251 172 168 167 2.1216628382144438 1 746 6 781 14 571 10 1373 17 979 11 1357 5 771 2 1074 21 1235 16 635 12 862
2720 0.14245321454183407 1.0910158838299306 2.8425946244168516 109 102 95 1.04083852591135 6 2300 10 3563 1 2377 17 5024 20 2430 16 1086 15 2143 8 1451 14 4184 7 1019
2353 -1.0052330396096798 -1.5158837118140265 2.723997182378076 209 206 201 0.1949132960470904 14 633 10 581
2724 0.14294819552642826 -0.094005638581588682 3.0780266067738347 35 34 32 0.0069456947287214492 1 2010 14 2252
2357 0.1188284799979604 1.2677376746461602 2.9377130219082952 13 12 8 1.4618199743544833 1 1398 6 989 14 681 16 609 12 2620 20 736 15 1197 8 676 7 356
3233 -6.4565019579233454 7.3530412445530766 9.5045535601366176 144 134 114 1.81413024499399 1 555 17 490 11 497
2361 -0.31900252358376308 1.3923438287112546 2.7416514043201428 173 166 166 1.1992579047952112 1 690 14 849 20 532 16 879 12 469 17 1029
3754 0.45384313759431971 -0.63246192452320626 2.1890554851719188 70 71 65 2.6449869129821795 10 3974 17 5063 11 1921
2363 -0.47892996364413765 1.5891918093936837 2.8566596036103173 167 162 159 1.0484634839671403 1 1092 14 870 16 920
2732 -0.62892241471487331 -0.65218432729301046 1.9364275268274258 91 88 79 1.6573356809975772 1 635 14 2776
2368 -7.8139284090808134 6.9647667039141625 9.9168081271256252 111 104 88 1.3870804400970997 1 1128 14 907 10 1124 17 565 11 632
2800 -6.6430297435100076 7.3010936111602129 9.7159418412794452 146 137 122 1.8046133215261917 1 308 14 298 10 307 17 324 11 292
2369 -0.52337159545246514 1.5345428553598894 2.846933841944252 166 161 158 1.9831013433141957 1 1140 14 924 17 1046 16 572
2370 -0.22496925065860479 1.3906372666200042 2.7530808802114053 166 160 164 1.3442093916951576 1 1433 6 2357 14 938 10 3603 17 3220 11 2937 5 3484 20 1519 12 1484 8 2442 7 1753
2372 -0.34002266497441858 1.5202200314646981 2.8052321424433897 164 163 165 1.8300671090177969 1 1469 14 959 10 2670 17 1727 11 2419 5 1698 20 785 2 1676 21 1123 18 2699 16 908 12 1458
2804 -7.0724368086677964 7.4924660088926842 8.9104576971679883 112 104 91 0.38781053942085775 1 301 10 316
2373 -0.42802026087330897 1.5571756316546668 2.8296729164783012 18 18 16 1.5568985095361778 1 1088 6 2920 14 966 2 1160 21 1846 16 1440 12 452
3313 -7.8194770203259498 6.8772603578522711 9.8791041685087944 111 97 70 1.18845910929487 10 1351 17 1107 11 903
2374 -0.4949994027103426 1.5967715104283204 2.8626996116811356 36 37 31 1.5206474380564119 14 974 10 1309 17 1052 11 1294 5 671 20 444 2 991 21 919 18 1167 4 890 12 446
2375 -0.49619488394273692 1.617998570059177 2.8710409751208874 172 171 169 2.1455266171648013 1 1375 14 980 10 2863 17 1751 11 2442 5 1726 20 505 2 1168 21 918 18 2198 4 1195 16 654 12 927
2377 -0.50374860258789944 1.6329537345008975 2.8848736242631778 33 33 27 1.0599587238039379 1 1715 14 982 10 2878 16 656
2378 -0.62662402737322853 1.7373807796891978 2.9751451805953448 39 36 31 1.479371324305262 1 1169 14 995 17 1059 11 1309 5 1138 20 430 2 1003 21 563 18 751 4 564 12 662 3 3491 13 3942
2379 -0.49690838934806864 1.7578684076355717 2.9406609706054896 173 166 172 1.449844787054446 1 1177 14 999 10 2713 17 1793 11 2466 5 1288 18 2921 4 2266
2380 -0.53238187447964069 1.7602131921025634 2.9462853211720494 147 101 101 1.3317184898322549 1 2695 14 1000 17 1795 2 1771 21 1912 20 843 18 2941 4 2281
2812 -6.614705826372032 7.9466479046138012 7.9285539055880765 113 102 87 1.8295536485620747 1 284 10 350 11 320
2381 -0.46652979062606892 1.7557791103794171 2.9271375925114507 170 162 165 1.997935673356475 1 1178 14 1001 10 2960 17 1792 11 2467 5 1493 20 833 2 1745 18 2905 4 2259
2382 -0.15529908591233377 1.8008365899763454 3.0092223323725067 100 98 99 1.5732453547813727 6 2524 14 1022 11 1782 17 1760 16 676 12 1385 15 2273 8 1586 7 789
2383 -14.774630685972349 3.5484570422064703 13.408892188153169 114 114 116 2.9213514319775733 1 1147 14 1026
5315 -0.56836685054367486 0.90027540176315579 2.597598898823656 164 162 151 1.5792295397967502 5 3924 20 1796 21 2144 21 7899 4 2818 12 4054 3 3371 13 2311
2593 -0.37209868711089761 1.1724225706926312 2.6720433183894405 122 121 118 1.4478980401811836 1 2987 17 3140
2384 -0.20901024461289949 2.0091944190116329 3.1407646157314018 110 28 30 0.030393148763736097 6 2557 14 1031
2752 -0.24514225534761963 1.8389454677273598 2.9977619873186141 167 163 162 2.0742666673687489 6 4428 14 3885
2385 0.16472471969833796 0.98276972778832594 2.7966808920827808 50 45 41 0.91725558573692634 1 1722 6 1176 14 1034 10 3383 17 3550 20 1677 16 1247 12 4227 15 1159 8 957 7 670
2387 0.1467513114587545 1.0113473845733199 2.7892163016189464 37 30 24 0.78751027335856705 1 1310 14 1054 6 1190 20 1666 16 1234 15 2107 8 955 7 989
2597 -0.3752529623612666 1.1291270750827753 2.6177215262410445 15 15 13 1.3134914259955675 1 2953 14 3920 17 4499 11 3518 5 3346 2 2861 21 4322 18 3370 4 3301 16 2368
2388 0.08958217562589306 1.0669413467387523 2.749483666373012 59 54 51 1.0833913632859313 1 1339 14 1060 12 2166 20 2379 8 947
2389 0.097535231169176395 1.0750965354322595 2.7647746357165728 151 146 143 1.4438930233174048 6 1211 14 1061 5 3837 17 2996 20 1638 16 722 12 4236 15 2120 8 1125 7 778 1 2371
3118 0.017222403482246049 -0.33237550994603765 1.9758262044350565 93 84 69 1.4290108660676861 6 4694 10 3830
2760 -9.8640130928497811 6.5779443511561402 9.5817248213908819 116 99 77 1.5253979963129494 14 43 10 39
3627 -0.022242423603885418 0.88665069679426023 2.5474420933888395 78 74 65 1.0219872945669741 1 2146 17 3580 12 3867
2394 -0.30320705240804618 0.97892726567744337 2.5349007282236835 168 167 165 1.3889494328966108 1 1018 14 1097 10 1364 17 1252 11 1377 5 1063 20 502 2 1297 21 2172 18 1612 4 965 16 1249 12 878
2605 -0.3747256989940963 1.3284269685973662 2.7130309111079285 18 16 17 1.1800325409317924 1 4119 14 3960 20 4086 12 5243
2396 0.06071391888245576 0.91271059881979433 2.6198473441543424 113 108 105 1.8429025652766804 6 1111 14 1118 15 3303 6 2103 8 974 16 1308
2398 -0.14678575253010812 0.86901982834139979 2.4881338009668035 155 59 63 2.2594323979343516 1 1005 6 1255 14 1131 10 1370 20 1030 12 1100 15 1961
2399 -0.18958846567137377 0.86723674357605229 2.483127022732488 150 45 47 1.9522975326087288 1 1004 6 2028 14 1133 17 1281 11 1361 10 1371 5 1041 20 1029 2 2284 18 2457 4 867 16 1332 12 864
5838 -1.1502219956427835 1.3581103265574426 3.6472413801654309 130 115 98 2.7558968574118432 5 3500 21 1941 18 1535 2 1746
2400 0.17836946265207354 0.8296468680793172 2.7015481271001995 144 139 135 0.89908248373376665 1 1478 14 1139 6 965 10 3192 16 1350 12 4967 15 1139 8 981 7 900
2704 -10.358724926703211 6.2403299463805837 9.9739824775347987 67 57 47 1.0368813768519383 14 1037 10 1404
2401 -0.15765891375635599 0.82685993556204396 2.467543475865476 144 55 57 0.99454780710087831 6 1079 14 1145 8 2262 15 2431
3730 -0.26294604909659186 1.3699092649479583 2.72824892671512 25 26 18 1.3763004431482904 1 4030 17 4695 11 2946 10 2777 5 3487
2403 -0.30178132350104925 0.82200608419127574 2.4569557336898096 177 173 169 2.1961999586338217 1 995 14 1148 17 980 10 1386 11 834 5 768 20 603 2 924 21 1469 18 1945 4 731 12 503
3223 -0.35889785217785453 0.92568519082632683 2.516655457520474 40 38 27 1.5531930647587042 1 383 17 420 5 299 2 545 18 940 4 492 12 333
2404 -0.27022496735124624 1.3288136305680982 2.7142892679577049 167 165 166 1.4513259479605696 1 1059 14 1188 6 2324 5 1430 20 732 12 895
2708 0.19426435305507067 0.75940647281907936 3.3515233218626754 11 1 1 1.4653466072025312 1 1323 16 1216
2405 0.11784298158458081 1.3048650128371579 2.9613206394880129 106 103 98 0.97888087206984198 1 1401 14 1259 6 1278 17 3112 5 3996 16 867 12 4472 15 1200 8 844 7 569
3217 -6.7375521211965257 7.3264128786038984 9.652176400734529 118 109 86 1.2803714642229498 10 365 17 327 11 296
2407 0.10867166434803507 1.3263714691025403 2.9605999684489741 120 114 110 0.74016792432126133 1 1408 6 1289 14 1317 10 3695 17 4464 16 872 15 2214 8 1524 7 574
2409 -0.2360770676132283 1.1431425178075576 2.6209318279621661 21 11 19 1.2112647636347904 1 2432 6 2630 14 1391 17 3122 5 3323 20 2410 2 4612 16 1828 12 4169 10 3648
2712 0.54764714322587793 -0.26440778349252037 2.375696206605511 134 119 88 0.10528992831233794 1 3600 14 1367
2410 -0.1508512822030674 -1.1415749856092492 2.3128086201359777 212 208 197 1.3730470128561945 6 1648 14 1479
2411 -1.756822096636022 -1.3581929241646946 3.1276384593809943 225 221 216 1.8847959304923791 6 1681 14 1515
3738 -0.27898719195320726 1.6001010783089997 2.8538299551588833 113 107 103 0.59157659706699961 1 4447 17 4837 20 4347 16 3679 12 5521
3231 -5.1976281216695108 7.7609251474361125 9.4792120767440604 160 154 138 1.3436643215561197 10 631 17 487 11 495
2414 -0.48362201624380247 0.76396596414041518 2.4918297355409296 138 62 61 1.7037845098316844 1 1493 14 1684 10 2481 17 1305 11 1631 5 1038 2 665 21 1021 18 932 4 741 12 1077 3 2329
3225 0.10061581447272337 1.4522649683787874 3.0390669559089236 146 133 125 1.459078562439003 1 236 6 135 15 108
2415 -0.50163351120999022 0.7701747093470549 2.5024859493026064 187 170 163 2.2810027119642529 1 1492 14 1685 5 769 11 1344 21 616 18 585 4 494 12 499
5347 -0.50004501862344486 0.90994010908074086 2.5597198085898354 167 161 152 0.42454349385230855 11 3373 20 2228 12 4938
2784 -8.6280619829782434 6.7324110829377339 10.158425247810865 107 90 70 2.3927407213791518 1 178 10 210 17 149
2419 -0.34993425694523911 0.84702159142421474 2.4786337185320466 139 50 55 1.2665913027166618 1 1727 14 1709 10 3178 17 2981 11 3331 5 2421 2 2645 21 2237 18 3399 4 1964 12 2372
3810 -0.5218135554902229 1.0413521441589391 2.6393831301284467 180 175 172 2.2028477925679568 17 60 5 46 4 53
2420 -0.25318361578001664 0.85603515446184841 2.474318931158491 181 170 166 1.5999589676737502 1 1167 6 2744 14 1711 21 3393 18 4386 16 1619 2 2285
3303 -0.68219139815825824 1.5189424332077901 2.9269200827883508 31 33 20 1.6661886001327206 10 2608 17 1043 11 875 5 678 20 509 2 616 21 570 4 442 12 513 3 1923 13 1636 9 3403
2421 -0.21787235006566619 0.86667590586491849 2.4794525203472588 130 44 44 2.1493927804215267 1 1208 6 3683 14 1715 10 1754 17 2297 11 1650 5 1686 20 1235 2 2635 21 4310 18 4382 4 1935 16 2568 12 1599
2422 0.1556074125840782 0.84932595562370139 2.6813324288538878 55 50 46 0.5989297465508675 6 2065 14 1718 16 1343 12 4014 15 2009 8 1683 7 910
